1488.80 -174.74 -40.32
1488.80 -177.74 -40.68
1488.79 -180.74 -40.68
1488.79 -183.74 -40.32
1488.79 -186.74 -39.95
1488.79 -189.74 -39.22
1488.79 -192.74 -38.49
1488.79 -195.74 -38.12
1488.79 -198.74 -37.39
1488.79 -201.74 -36.65
1488.79 -204.74 -35.92
1488.78 -207.74 -35.55
1488.78 -210.74 -35.19
1488.78 -213.74 -35.19
1488.78 -216.74 -35.19
1488.78 -219.74 -35.19
1488.78 -222.74 -35.19
1488.78 -225.74 -35.55
1488.78 -228.74 -35.55
1488.77 -231.74 -35.55
1488.77 -234.74 -35.19
1488.77 -237.74 -35.19
1488.77 -240.74 -34.45
1488.77 -243.74 -34.09
1488.77 -246.74 -33.35
1488.77 -249.74 -32.99
1488.77 -252.74 -32.25
1488.76 -255.74 -31.89
1488.76 -258.74 -31.15
1488.76 -261.74 -30.79
1488.76 -264.74 -30.79
1488.76 -267.74 -30.42
1488.76 -270.74 -30.06
1488.76 -273.74 -29.69
1488.76 -276.74 -29.69
1488.76 -279.74 -29.32
1488.75 -282.74 -29.32
1488.75 -285.74 -28.96
1488.75 -288.74 -28.59
1488.75 -291.74 -28.22
1488.75 -294.74 -27.49
1488.75 -297.74 -26.76
1488.75 -300.74 -25.66
1488.75 -303.74 -25.29
1488.74 -306.74 -24.56
1488.74 -309.74 -23.82
1488.74 -312.74 -23.09
1488.74 -315.74 -22.72
1488.74 -318.74 -22.36
1488.74 -321.74 -22.36
1488.74 -324.74 -22.72
1488.74 -327.74 -22.36
1488.73 -330.74 -22.36
1488.73 -333.74 -22.36
1488.73 -336.74 -21.99
1488.73 -339.74 -21.99
1488.73 -342.74 -21.63
1488.73 -345.74 -21.63
1488.73 -348.74 -21.26
1488.73 -351.74 -20.89
1488.73 -354.74 -20.89
1488.72 -357.74 -20.89
1488.72 -360.74 -20.89
1488.72 -363.74 -20.89
1488.72 -366.74 -20.89
1488.72 -369.74 -20.89
1488.72 -372.74 -20.89
1488.72 -375.74 -20.89
1488.72 -378.74 -20.89
1488.71 -381.74 -20.89
1488.71 -384.74 -20.89
1488.71 -387.74 -20.89
1488.71 -390.74 -20.89
1488.71 -393.74 -20.89
1488.71 -396.74 -20.89
1488.71 -399.74 -20.53
1488.71 -402.74 -20.53
1488.70 -405.74 -19.79
1488.70 -408.74 -19.43
1488.70 -411.74 -19.06
1488.70 -414.74 -18.33
1488.70 -417.74 -17.59
1488.70 -420.74 -17.23
1488.70 -423.74 -16.86
1488.70 -426.74 -16.13
1488.69 -429.74 -15.76
1488.69 -432.74 -15.76
1488.69 -435.74 -15.76
1488.69 -438.74 -15.76
1488.69 -441.74 -16.13
1488.69 -444.74 -16.49
1488.69 -447.74 -16.49
1488.69 -450.74 -16.49
1488.69 -453.74 -16.13
1488.68 -456.74 -15.76
1488.68 -459.74 -14.66
1488.68 -462.74 -13.93
1488.68 -465.74 -12.83
1488.68 -468.74 -11.73
1488.68 -471.74 -10.26
1488.68 -474.74 -8.43
1488.68 -477.74 -7.70
1488.67 -480.74 -6.60
1488.67 -483.74 -6.23
1488.67 -486.74 -6.60
1488.67 -489.74 -7.33
1488.67 -492.74 -8.43
1488.67 -495.74 -9.53
1488.67 -498.74 -10.63
1488.67 -501.74 -11.73
1488.66 -504.74 -12.10
1488.66 -507.74 -12.83
1488.66 -510.74 -13.20
1488.66 -513.74 -13.20
1488.66 -516.74 -13.56
1488.66 -519.74 -13.56
1488.66 -522.74 -13.56
1488.66 -525.74 -13.20
1488.66 -528.74 -13.20
1488.65 -531.74 -13.20
1488.65 -534.74 -12.83
1488.65 -537.74 -12.83
1488.65 -540.74 -12.83
1488.65 -543.74 -12.46
1488.65 -546.74 -12.46
1488.65 -549.74 -12.10
1488.65 -552.74 -12.10
1488.64 -555.74 -11.73
1488.64 -558.74 -11.73
1488.64 -561.74 -11.36
1488.64 -564.74 -11.36
1488.64 -567.74 -11.36
1488.64 -570.74 -11.00
1488.64 -573.73 -10.63
1488.64 -576.73 -10.26
1488.63 -579.73 -10.26
1488.63 -582.73 -9.90
1488.63 -585.73 -9.90
1488.63 -588.73 -9.53
1488.63 -591.73 -9.16
1488.63 -594.73 -9.16
1488.63 -597.73 -8.80
1488.63 -600.73 -8.43
1488.63 -603.73 -8.43
1488.62 -606.73 -8.06
1488.62 -609.73 -7.70
1488.62 -612.73 -7.70
1488.62 -615.73 -7.33
1488.62 -618.73 -6.96
1488.62 -621.73 -6.96
1488.62 -624.73 -6.60
1488.62 -627.73 -6.23
1488.61 -630.73 -6.23
1488.61 -633.73 -5.86
1488.61 -636.73 -5.86
1488.61 -639.73 -5.86
1488.61 -642.73 -5.86
1488.61 -645.73 -5.86
1488.61 -648.73 -5.86
1488.61 -651.73 -5.86
1488.60 -654.73 -5.86
1488.60 -657.73 -5.86
1488.60 -660.73 -5.86
1488.60 -663.73 -6.23
1488.60 -666.73 -6.23
1488.60 -669.73 -6.23
1488.60 -672.73 -6.23
1488.60 -675.73 -6.23
1488.60 -678.73 -6.23
1488.59 -681.73 -6.23
1488.59 -684.73 -6.23
1488.59 -687.73 -6.60
1488.59 -690.73 -6.60
1488.59 -693.73 -6.96
1488.59 -696.73 -6.96
1488.59 -699.73 -7.33
1488.59 -702.73 -7.70
1488.58 -705.73 -7.70
1488.58 -708.73 -8.06
1488.58 -711.73 -8.06
1488.58 -714.73 -8.06
1488.58 -717.73 -8.43
1488.58 -720.73 -8.80
1488.58 -723.73 -8.80
1488.58 -726.73 -8.80
1488.57 -729.73 -9.16
1488.57 -732.73 -9.16
1488.57 -735.73 -9.16
1488.57 -738.73 -9.53
1488.57 -741.73 -9.53
1488.57 -744.73 -9.53
1488.57 -747.73 -9.90
1488.57 -750.73 -9.90
1488.57 -753.73 -9.90
1488.56 -756.73 -10.26
1488.56 -759.73 -10.26
1488.56 -762.73 -10.26
1488.56 -765.73 -10.63
1488.56 -768.73 -10.63
1488.56 -771.73 -10.63
1488.56 -774.73 -11.00
1488.56 -777.73 -11.00
1488.55 -780.73 -11.00
1488.55 -783.73 -11.36
1488.55 -786.73 -11.36
1488.55 -789.73 -11.36
1488.55 -792.73 -11.73
1488.55 -795.73 -11.73
1488.55 -798.73 -11.73
1488.55 -801.73 -11.73
1488.54 -804.73 -12.10
1488.54 -807.73 -12.10
1488.54 -810.73 -12.10
1488.54 -813.73 -12.10
1488.54 -816.73 -12.10
1488.54 -819.73 -12.10
1488.54 -822.73 -12.46
1488.54 -825.73 -12.46
1488.54 -828.73 -12.46
1488.53 -831.73 -12.46
1488.53 -834.73 -12.46
1488.53 -837.73 -12.46
1488.53 -840.73 -12.83
1488.53 -843.73 -12.83
1488.53 -846.73 -12.83
1488.53 -849.73 -13.20
1488.53 -852.73 -13.20
1488.52 -855.73 -13.20
1488.52 -858.73 -13.20
1488.52 -861.73 -13.20
1488.52 -864.73 -13.20
1488.52 -867.73 -13.56
1488.52 -870.73 -13.56
1488.52 -873.73 -13.56
1488.52 -876.73 -13.56
1488.51 -879.73 -13.56
1488.51 -882.73 -13.56
1488.51 -885.73 -13.56
1488.51 -888.73 -13.56
1488.51 -891.73 -13.56
1488.51 -894.73 -13.93
1488.51 -897.73 -13.93
1488.51 -900.73 -13.93
1488.51 -903.73 -13.93
1488.50 -906.73 -13.93
1488.50 -909.73 -13.93
1488.50 -912.73 -13.93
1488.50 -915.73 -14.29
1488.50 -918.73 -14.29
1488.50 -921.73 -14.29
1488.50 -924.73 -14.29
1488.50 -927.73 -14.29
1488.49 -930.73 -14.29
1488.49 -933.73 -14.29
1488.49 -936.73 -14.29
1488.49 -939.73 -14.29
1491.86 -18.74 -33.72
1491.86 -21.74 -33.72
1491.86 -24.74 -33.72
1491.86 -27.74 -33.72
1491.85 -30.74 -34.09
1491.85 -33.74 -34.09
1491.85 -36.74 -34.09
1491.85 -39.74 -34.09
1491.85 -42.74 -34.09
1491.85 -45.74 -34.45
1491.85 -48.74 -34.45
1491.85 -51.74 -34.45
1491.85 -54.74 -34.45
1491.84 -57.74 -34.82
1491.84 -60.74 -34.82
1491.84 -63.74 -35.19
1491.84 -66.74 -35.55
1491.84 -69.74 -35.55
1491.84 -72.74 -35.55
1491.84 -75.74 -35.92
1491.84 -78.74 -35.92
1491.83 -81.74 -36.29
1491.83 -84.74 -36.29
1491.83 -87.74 -36.65
1491.83 -90.74 -37.02
1491.83 -93.74 -37.02
1491.83 -96.74 -37.39
1491.83 -99.74 -37.75
1491.83 -102.74 -37.75
1491.82 -105.74 -38.12
1491.82 -108.74 -38.49
1491.82 -111.74 -38.85
1491.82 -114.74 -39.59
1491.82 -117.74 -39.95
1491.82 -120.74 -40.32
1491.82 -123.74 -40.68
1491.82 -126.74 -40.68
1491.82 -129.74 -41.05
1491.81 -132.74 -41.05
1491.81 -135.74 -40.68
1491.81 -138.74 -40.32
1491.81 -141.74 -39.59
1491.81 -144.74 -39.22
1491.81 -147.74 -39.22
1491.81 -150.74 -38.85
1491.81 -153.74 -38.85
1491.80 -156.74 -38.85
1491.80 -159.74 -38.85
1491.80 -162.74 -39.22
1491.80 -165.74 -39.22
1491.80 -168.74 -39.59
1491.80 -171.74 -39.95
1491.80 -174.74 -40.32
1491.80 -177.74 -40.32
1491.79 -180.74 -40.32
1491.79 -183.74 -39.95
1491.79 -186.74 -39.59
1491.79 -189.74 -38.85
1491.79 -192.74 -38.49
1491.79 -195.74 -37.75
1491.79 -198.74 -37.02
1491.79 -201.74 -36.65
1491.79 -204.74 -35.92
1491.78 -207.74 -35.55
1491.78 -210.74 -35.19
1491.78 -213.74 -35.19
1491.78 -216.74 -34.82
1491.78 -219.74 -34.82
1491.78 -222.74 -35.19
1491.78 -225.74 -35.19
1491.78 -228.74 -35.19
1491.77 -231.74 -35.19
1491.77 -234.74 -35.19
1491.77 -237.74 -34.82
1491.77 -240.74 -34.45
1491.77 -243.74 -34.09
1491.77 -246.74 -33.35
1491.77 -249.74 -32.62
1491.77 -252.74 -31.89
1491.76 -255.74 -31.52
1491.76 -258.74 -30.79
1491.76 -261.74 -30.79
1491.76 -264.74 -30.42
1491.76 -267.74 -30.06
1491.76 -270.74 -30.06
1491.76 -273.74 -29.69
1491.76 -276.74 -29.32
1491.76 -279.74 -28.96
1491.75 -282.74 -28.96
1491.75 -285.74 -28.59
1491.75 -288.74 -28.22
1491.75 -291.74 -27.86
1491.75 -294.74 -27.12
1491.75 -297.74 -26.39
1491.75 -300.74 -25.66
1491.75 -303.74 -24.92
1491.74 -306.74 -24.19
1491.74 -309.74 -23.46
1491.74 -312.74 -23.09
1491.74 -315.74 -22.72
1491.74 -318.74 -22.36
1491.74 -321.74 -22.36
1491.74 -324.74 -22.36
1491.74 -327.74 -22.36
1491.73 -330.74 -22.36
1491.73 -333.74 -21.99
1491.73 -336.74 -21.99
1491.73 -339.74 -21.63
1491.73 -342.74 -21.63
1491.73 -345.74 -21.26
1491.73 -348.74 -20.89
1491.73 -351.74 -20.53
1491.73 -354.74 -20.53
1491.72 -357.74 -20.53
1491.72 -360.74 -20.53
1491.72 -363.74 -20.53
1491.72 -366.74 -20.53
1491.72 -369.74 -20.53
1491.72 -372.74 -20.53
1491.72 -375.74 -20.53
1491.72 -378.74 -20.53
1491.71 -381.74 -20.53
1491.71 -384.74 -20.53
1491.71 -387.74 -20.53
1491.71 -390.74 -20.53
1491.71 -393.74 -20.53
1491.71 -396.74 -20.53
1491.71 -399.74 -20.53
1491.71 -402.74 -20.16
1491.70 -405.74 -19.79
1491.70 -408.74 -19.43
1491.70 -411.74 -18.69
1491.70 -414.74 -18.33
1491.70 -417.74 -17.59
1491.70 -420.74 -17.23
1491.70 -423.74 -16.86
1491.70 -426.74 -16.13
1491.69 -429.74 -16.13
1491.69 -432.74 -15.76
1491.69 -435.74 -15.76
1491.69 -438.74 -16.13
1491.69 -441.74 -16.13
1491.69 -444.74 -16.49
1491.69 -447.74 -16.49
1491.69 -450.74 -16.13
1491.69 -453.74 -15.76
1491.68 -456.74 -15.39
1491.68 -459.74 -14.66
1491.68 -462.74 -13.93
1491.68 -465.74 -12.83
1491.68 -468.74 -11.73
1491.68 -471.74 -10.26
1491.68 -474.74 -8.80
1491.68 -477.74 -8.06
1491.67 -480.74 -6.96
1491.67 -483.74 -6.60
1491.67 -486.74 -6.96
1491.67 -489.74 -7.70
1491.67 -492.74 -8.80
1491.67 -495.74 -9.90
1491.67 -498.74 -10.63
1491.67 -501.74 -11.73
1491.66 -504.74 -12.10
1491.66 -507.74 -12.83
1491.66 -510.74 -12.83
1491.66 -513.74 -13.20
1491.66 -516.74 -13.56
1491.66 -519.74 -13.56
1491.66 -522.74 -13.56
1491.66 -525.74 -13.20
1491.66 -528.74 -13.20
1491.65 -531.74 -13.20
1491.65 -534.74 -12.83
1491.65 -537.74 -12.83
1491.65 -540.74 -12.83
1491.65 -543.74 -12.46
1491.65 -546.74 -12.46
1491.65 -549.74 -12.10
1491.65 -552.74 -12.10
1491.64 -555.74 -11.73
1491.64 -558.74 -11.36
1491.64 -561.74 -11.36
1491.64 -564.74 -11.36
1491.64 -567.74 -11.00
1491.64 -570.74 -11.00
1491.64 -573.74 -10.63
1491.64 -576.74 -10.26
1491.63 -579.74 -10.26
1491.63 -582.74 -9.90
1491.63 -585.74 -9.53
1491.63 -588.74 -9.53
1491.63 -591.74 -9.16
1491.63 -594.74 -8.80
1491.63 -597.74 -8.80
1491.63 -600.74 -8.43
1491.63 -603.74 -8.06
1491.62 -606.74 -8.06
1491.62 -609.74 -7.70
1491.62 -612.74 -7.33
1491.62 -615.74 -7.33
1491.62 -618.74 -6.96
1491.62 -621.74 -6.60
1491.62 -624.74 -6.23
1491.62 -627.74 -6.23
1491.61 -630.74 -5.86
1491.61 -633.74 -5.86
1491.61 -636.74 -5.86
1491.61 -639.74 -5.50
1491.61 -642.74 -5.86
1491.61 -645.74 -5.86
1491.61 -648.74 -5.86
1491.61 -651.74 -5.86
1491.60 -654.74 -5.86
1491.60 -657.74 -5.86
1491.60 -660.74 -6.23
1491.60 -663.74 -6.23
1491.60 -666.74 -6.23
1491.60 -669.74 -6.60
1491.60 -672.74 -6.60
1491.60 -675.74 -6.60
1491.60 -678.74 -6.60
1491.59 -681.74 -6.60
1491.59 -684.74 -6.60
1491.59 -687.74 -6.60
1491.59 -690.74 -6.60
1491.59 -693.74 -6.96
1491.59 -696.74 -7.33
1491.59 -699.74 -7.33
1491.59 -702.74 -7.70
1491.58 -705.74 -7.70
1491.58 -708.74 -8.06
1491.58 -711.74 -8.06
1491.58 -714.74 -8.06
1491.58 -717.74 -8.43
1491.58 -720.74 -8.80
1491.58 -723.74 -8.80
1491.58 -726.74 -9.16
1491.57 -729.74 -9.16
1491.57 -732.74 -9.16
1491.57 -735.74 -9.53
1491.57 -738.74 -9.53
1491.57 -741.74 -9.53
1491.57 -744.74 -9.53
1491.57 -747.74 -9.90
1491.57 -750.74 -9.90
1491.57 -753.74 -9.90
1491.56 -756.74 -10.26
1491.56 -759.74 -10.26
1491.56 -762.74 -10.26
1491.56 -765.74 -10.63
1491.56 -768.74 -10.63
1491.56 -771.74 -10.63
1491.56 -774.74 -11.00
1491.56 -777.74 -11.00
1491.55 -780.74 -11.00
1491.55 -783.74 -11.36
1491.55 -786.74 -11.36
1491.55 -789.74 -11.36
1491.55 -792.74 -11.73
1491.55 -795.74 -11.73
1491.55 -798.74 -11.73
1491.55 -801.74 -11.73
1491.54 -804.74 -12.10
1491.54 -807.74 -12.10
1491.54 -810.74 -12.10
1491.54 -813.74 -12.10
1491.54 -816.74 -12.10
1491.54 -819.73 -12.10
1491.54 -822.73 -12.46
1491.54 -825.73 -12.46
1491.54 -828.73 -12.46
1491.53 -831.73 -12.46
1491.53 -834.73 -12.46
1491.53 -837.73 -12.46
1491.53 -840.73 -12.83
1491.53 -843.73 -12.83
1491.53 -846.73 -12.83
1491.53 -849.73 -13.20
1491.53 -852.73 -13.20
1491.52 -855.73 -13.20
1491.52 -858.73 -13.20
1491.52 -861.73 -13.20
1491.52 -864.73 -13.20
1491.52 -867.73 -13.56
1491.52 -870.73 -13.56
1491.52 -873.73 -13.56
1491.52 -876.73 -13.56
1491.51 -879.73 -13.56
1491.51 -882.73 -13.56
1491.51 -885.73 -13.56
1491.51 -888.73 -13.56
1491.51 -891.73 -13.56
1491.51 -894.73 -13.93
1491.51 -897.73 -13.93
1491.51 -900.73 -13.93
1491.51 -903.73 -13.93
1491.50 -906.73 -13.93
1491.50 -909.73 -13.93
1491.50 -912.73 -14.29
1491.50 -915.73 -14.29
1491.50 -918.73 -14.29
1491.50 -921.73 -14.29
1491.50 -924.73 -14.29
1491.50 -927.73 -14.29
1491.49 -930.73 -14.29
1491.49 -933.73 -14.29
1491.49 -936.73 -14.29
1491.49 -939.73 -14.29
1494.86 -18.74 -33.35
1494.86 -21.74 -33.72
1494.86 -24.74 -33.72
1494.86 -27.74 -33.72
1494.85 -30.74 -34.09
1494.85 -33.74 -34.09
1494.85 -36.74 -34.09
1494.85 -39.74 -34.09
1494.85 -42.74 -34.09
1494.85 -45.74 -34.45
1494.85 -48.74 -34.45
1494.85 -51.74 -34.45
1494.85 -54.74 -34.82
1494.84 -57.74 -34.82
1494.84 -60.74 -34.82
1494.84 -63.74 -35.19
1494.84 -66.74 -35.19
1494.84 -69.74 -35.55
1494.84 -72.74 -35.55
1494.84 -75.74 -35.55
1494.84 -78.74 -35.92
1494.83 -81.74 -36.29
1494.83 -84.74 -36.29
1494.83 -87.74 -36.65
1494.83 -90.74 -36.65
1494.83 -93.74 -37.02
1494.83 -96.74 -37.39
1494.83 -99.74 -37.39
1494.83 -102.74 -37.75
1494.82 -105.74 -38.12
1494.82 -108.74 -38.85
1494.82 -111.74 -39.22
1494.82 -114.74 -39.59
1494.82 -117.74 -39.95
1494.82 -120.74 -40.68
1494.82 -123.74 -40.68
1494.82 -126.74 -41.05
1494.82 -129.74 -41.42
1494.81 -132.74 -41.42
1494.81 -135.74 -40.68
1494.81 -138.74 -40.32
1494.81 -141.74 -39.95
1494.81 -144.74 -39.59
1494.81 -147.74 -39.22
1494.81 -150.74 -38.85
1494.81 -153.74 -38.49
1494.80 -156.74 -38.49
1494.80 -159.74 -38.49
1494.80 -162.74 -38.85
1494.80 -165.74 -38.85
1494.80 -168.74 -39.22
1494.80 -171.74 -39.22
1494.80 -174.74 -39.59
1494.80 -177.74 -39.59
1494.79 -180.74 -39.59
1494.79 -183.74 -39.22
1494.79 -186.74 -38.85
1494.79 -189.74 -38.49
1494.79 -192.74 -37.75
1494.79 -195.74 -37.39
1494.79 -198.74 -36.65
1494.79 -201.74 -36.29
1494.79 -204.74 -35.55
1494.78 -207.74 -35.19
1494.78 -210.74 -34.82
1494.78 -213.74 -34.82
1494.78 -216.74 -34.82
1494.78 -219.74 -34.82
1494.78 -222.74 -34.82
1494.78 -225.74 -34.82
1494.78 -228.74 -34.82
1494.77 -231.74 -34.82
1494.77 -234.74 -34.45
1494.77 -237.74 -34.09
1494.77 -240.74 -33.72
1494.77 -243.74 -33.35
1494.77 -246.74 -32.62
1494.77 -249.74 -32.25
1494.77 -252.74 -31.52
1494.76 -255.74 -31.15
1494.76 -258.74 -30.42
1494.76 -261.74 -30.06
1494.76 -264.74 -29.69
1494.76 -267.74 -29.32
1494.76 -270.74 -29.32
1494.76 -273.74 -28.96
1494.76 -276.74 -28.96
1494.76 -279.74 -28.59
1494.75 -282.74 -28.59
1494.75 -285.74 -28.22
1494.75 -288.74 -27.86
1494.75 -291.74 -27.49
1494.75 -294.74 -26.76
1494.75 -297.74 -26.02
1494.75 -300.74 -25.29
1494.75 -303.74 -24.56
1494.74 -306.74 -24.19
1494.74 -309.74 -23.46
1494.74 -312.74 -23.09
1494.74 -315.74 -22.72
1494.74 -318.74 -22.36
1494.74 -321.74 -22.36
1494.74 -324.74 -22.36
1494.74 -327.74 -22.36
1494.73 -330.74 -21.99
1494.73 -333.74 -21.99
1494.73 -336.74 -21.63
1494.73 -339.74 -21.26
1494.73 -342.74 -20.89
1494.73 -345.74 -20.53
1494.73 -348.74 -20.16
1494.73 -351.74 -20.16
1494.73 -354.74 -19.79
1494.72 -357.74 -19.79
1494.72 -360.74 -19.79
1494.72 -363.74 -19.79
1494.72 -366.74 -19.79
1494.72 -369.74 -19.79
1494.72 -372.74 -19.79
1494.72 -375.74 -19.79
1494.72 -378.74 -20.16
1494.71 -381.74 -20.16
1494.71 -384.74 -20.16
1494.71 -387.74 -20.16
1494.71 -390.74 -20.16
1494.71 -393.74 -20.16
1494.71 -396.74 -20.16
1494.71 -399.74 -20.16
1494.71 -402.74 -19.79
1494.70 -405.74 -19.43
1494.70 -408.74 -19.06
1494.70 -411.74 -18.69
1494.70 -414.74 -18.33
1494.70 -417.74 -17.59
1494.70 -420.74 -17.23
1494.70 -423.74 -16.86
1494.70 -426.74 -16.49
1494.69 -429.74 -16.49
1494.69 -432.74 -16.13
1494.69 -435.74 -16.13
1494.69 -438.74 -16.13
1494.69 -441.74 -16.49
1494.69 -444.74 -16.49
1494.69 -447.74 -16.49
1494.69 -450.74 -16.13
1494.69 -453.74 -15.76
1494.68 -456.74 -15.39
1494.68 -459.74 -14.66
1494.68 -462.74 -14.29
1494.68 -465.74 -13.20
1494.68 -468.74 -12.10
1494.68 -471.74 -11.00
1494.68 -474.74 -9.53
1494.68 -477.74 -8.80
1494.67 -480.74 -8.06
1494.67 -483.74 -7.70
1494.67 -486.74 -8.06
1494.67 -489.74 -8.80
1494.67 -492.74 -9.16
1494.67 -495.74 -10.26
1494.67 -498.74 -11.00
1494.67 -501.74 -12.10
1494.66 -504.74 -12.46
1494.66 -507.74 -12.83
1494.66 -510.74 -12.83
1494.66 -513.74 -13.20
1494.66 -516.74 -13.20
1494.66 -519.74 -13.56
1494.66 -522.74 -13.56
1494.66 -525.74 -13.20
1494.66 -528.74 -13.20
1494.65 -531.74 -12.83
1494.65 -534.74 -12.83
1494.65 -537.74 -12.83
1494.65 -540.74 -12.83
1494.65 -543.74 -12.46
1494.65 -546.74 -12.46
1494.65 -549.74 -12.10
1494.65 -552.74 -11.73
1494.64 -555.74 -11.36
1494.64 -558.74 -11.36
1494.64 -561.74 -11.36
1494.64 -564.74 -11.00
1494.64 -567.74 -11.00
1494.64 -570.74 -10.63
1494.64 -573.74 -10.26
1494.64 -576.74 -10.26
1494.63 -579.74 -9.90
1494.63 -582.74 -9.53
1494.63 -585.74 -9.53
1494.63 -588.74 -9.16
1494.63 -591.74 -8.80
1494.63 -594.74 -8.80
1494.63 -597.74 -8.43
1494.63 -600.74 -8.06
1494.63 -603.74 -8.06
1494.62 -606.74 -7.70
1494.62 -609.74 -7.70
1494.62 -612.74 -7.33
1494.62 -615.74 -6.96
1494.62 -618.74 -6.60
1494.62 -621.74 -6.23
1494.62 -624.74 -6.23
1494.62 -627.74 -5.86
1494.61 -630.74 -5.50
1494.61 -633.74 -5.50
1494.61 -636.74 -5.50
1494.61 -639.74 -5.50
1494.61 -642.74 -5.50
1494.61 -645.74 -5.86
1494.61 -648.74 -5.86
1494.61 -651.74 -5.86
1494.60 -654.74 -5.86
1494.60 -657.74 -5.86
1494.60 -660.74 -6.23
1494.60 -663.74 -6.23
1494.60 -666.74 -6.60
1494.60 -669.74 -6.60
1494.60 -672.74 -6.60
1494.60 -675.74 -6.60
1494.60 -678.74 -6.60
1494.59 -681.74 -6.60
1494.59 -684.74 -6.60
1494.59 -687.74 -6.96
1494.59 -690.74 -6.96
1494.59 -693.74 -7.33
1494.59 -696.74 -7.33
1494.59 -699.74 -7.70
1494.59 -702.74 -7.70
1494.58 -705.74 -8.06
1494.58 -708.74 -8.06
1494.58 -711.74 -8.43
1494.58 -714.74 -8.43
1494.58 -717.74 -8.43
1494.58 -720.74 -8.80
1494.58 -723.74 -8.80
1494.58 -726.74 -9.16
1494.57 -729.74 -9.16
1494.57 -732.74 -9.16
1494.57 -735.74 -9.53
1494.57 -738.74 -9.53
1494.57 -741.74 -9.53
1494.57 -744.74 -9.90
1494.57 -747.74 -9.90
1494.57 -750.74 -9.90
1494.57 -753.74 -10.26
1494.56 -756.74 -10.26
1494.56 -759.74 -10.26
1494.56 -762.74 -10.63
1494.56 -765.74 -10.63
1494.56 -768.74 -10.63
1494.56 -771.74 -11.00
1494.56 -774.74 -11.00
1494.56 -777.74 -11.00
1494.55 -780.74 -11.00
1494.55 -783.74 -11.36
1494.55 -786.74 -11.36
1494.55 -789.74 -11.73
1494.55 -792.74 -11.73
1494.55 -795.74 -11.73
1494.55 -798.74 -11.73
1494.55 -801.74 -11.73
1494.54 -804.74 -12.10
1494.54 -807.74 -12.10
1494.54 -810.74 -12.10
1494.54 -813.74 -12.10
1494.54 -816.74 -12.10
1494.54 -819.74 -12.46
1494.54 -822.74 -12.46
1494.54 -825.74 -12.46
1494.54 -828.74 -12.46
1494.53 -831.74 -12.46
1494.53 -834.74 -12.46
1494.53 -837.74 -12.83
1494.53 -840.74 -12.83
1494.53 -843.74 -12.83
1494.53 -846.74 -13.20
1494.53 -849.74 -13.20
1494.53 -852.74 -13.20
1494.52 -855.74 -13.20
1494.52 -858.74 -13.20
1494.52 -861.74 -13.20
1494.52 -864.74 -13.56
1494.52 -867.74 -13.56
1494.52 -870.74 -13.56
1494.52 -873.74 -13.56
1494.52 -876.74 -13.56
1494.51 -879.74 -13.56
1494.51 -882.74 -13.56
1494.51 -885.74 -13.56
1494.51 -888.74 -13.56
1494.51 -891.74 -13.56
1494.51 -894.74 -13.93
1494.51 -897.74 -13.93
1494.51 -900.74 -13.93
1494.51 -903.74 -13.93
1494.50 -906.74 -13.93
1494.50 -909.74 -13.93
1494.50 -912.74 -14.29
1494.50 -915.74 -14.29
1494.50 -918.74 -14.29
1494.50 -921.74 -14.29
1494.50 -924.74 -14.29
1494.50 -927.74 -14.29
1494.49 -930.74 -14.29
1494.49 -933.74 -14.29
1494.49 -936.74 -14.29
1494.49 -939.74 -14.29
1497.86 -18.74 -33.35
1497.86 -21.74 -33.35
1497.86 -24.74 -33.72
1497.86 -27.74 -33.72
1497.85 -30.74 -33.72
1497.85 -33.74 -34.09
1497.85 -36.74 -34.09
1497.85 -39.74 -34.09
1497.85 -42.74 -34.09
1497.85 -45.74 -34.45
1497.85 -48.74 -34.45
1497.85 -51.74 -34.45
1497.85 -54.74 -34.82
1497.84 -57.74 -34.82
1497.84 -60.74 -34.82
1497.84 -63.74 -35.19
1497.84 -66.74 -35.19
1497.84 -69.74 -35.55
1497.84 -72.74 -35.55
1497.84 -75.74 -35.55
1497.84 -78.74 -35.92
1497.83 -81.74 -35.92
1497.83 -84.74 -36.29
1497.83 -87.74 -36.65
1497.83 -90.74 -36.65
1497.83 -93.74 -37.02
1497.83 -96.74 -37.39
1497.83 -99.74 -37.39
1497.83 -102.74 -37.75
1497.82 -105.74 -38.12
1497.82 -108.74 -38.85
1497.82 -111.74 -39.22
1497.82 -114.74 -39.59
1497.82 -117.74 -39.95
1497.82 -120.74 -40.68
1497.82 -123.74 -41.05
1497.82 -126.74 -41.42
1497.82 -129.74 -41.42
1497.81 -132.74 -41.42
1497.81 -135.74 -41.05
1497.81 -138.74 -40.68
1497.81 -141.74 -39.95
1497.81 -144.74 -39.59
1497.81 -147.74 -39.22
1497.81 -150.74 -38.85
1497.81 -153.74 -38.49
1497.80 -156.74 -38.49
1497.80 -159.74 -38.49
1497.80 -162.74 -38.49
1497.80 -165.74 -38.49
1497.80 -168.74 -38.49
1497.80 -171.74 -38.85
1497.80 -174.74 -38.85
1497.80 -177.74 -38.85
1497.79 -180.74 -38.85
1497.79 -183.74 -38.49
1497.79 -186.74 -38.12
1497.79 -189.74 -37.75
1497.79 -192.74 -37.39
1497.79 -195.74 -37.02
1497.79 -198.74 -36.29
1497.79 -201.74 -35.92
1497.79 -204.74 -35.55
1497.78 -207.74 -35.19
1497.78 -210.74 -34.82
1497.78 -213.74 -34.45
1497.78 -216.74 -34.45
1497.78 -219.74 -34.45
1497.78 -222.74 -34.45
1497.78 -225.74 -34.45
1497.78 -228.74 -34.45
1497.77 -231.74 -34.09
1497.77 -234.74 -33.72
1497.77 -237.74 -33.72
1497.77 -240.74 -33.35
1497.77 -243.74 -32.99
1497.77 -246.74 -32.25
1497.77 -249.74 -31.52
1497.77 -252.74 -30.79
1497.76 -255.74 -30.42
1497.76 -258.74 -29.69
1497.76 -261.74 -29.69
1497.76 -264.74 -29.32
1497.76 -267.74 -28.96
1497.76 -270.74 -28.96
1497.76 -273.74 -28.59
1497.76 -276.74 -28.22
1497.76 -279.74 -28.22
1497.75 -282.74 -27.86
1497.75 -285.74 -27.86
1497.75 -288.74 -27.49
1497.75 -291.74 -27.12
1497.75 -294.74 -26.39
1497.75 -297.74 -25.66
1497.75 -300.74 -24.92
1497.75 -303.74 -24.56
1497.74 -306.74 -24.19
1497.74 -309.74 -23.46
1497.74 -312.74 -23.09
1497.74 -315.74 -22.72
1497.74 -318.74 -22.36
1497.74 -321.74 -22.36
1497.74 -324.74 -22.36
1497.74 -327.74 -21.99
1497.73 -330.74 -21.99
1497.73 -333.74 -21.63
1497.73 -336.74 -20.89
1497.73 -339.74 -20.89
1497.73 -342.74 -20.16
1497.73 -345.74 -20.16
1497.73 -348.74 -19.79
1497.73 -351.74 -19.43
1497.73 -354.74 -19.43
1497.72 -357.74 -19.06
1497.72 -360.74 -19.06
1497.72 -363.74 -19.43
1497.72 -366.74 -19.43
1497.72 -369.74 -19.06
1497.72 -372.74 -19.43
1497.72 -375.74 -19.43
1497.72 -378.74 -19.43
1497.71 -381.74 -19.43
1497.71 -384.74 -19.43
1497.71 -387.74 -19.43
1497.71 -390.74 -19.79
1497.71 -393.74 -19.79
1497.71 -396.74 -19.43
1497.71 -399.74 -19.43
1497.71 -402.74 -19.43
1497.70 -405.74 -19.06
1497.70 -408.74 -18.69
1497.70 -411.74 -18.33
1497.70 -414.74 -18.33
1497.70 -417.74 -17.59
1497.70 -420.74 -17.59
1497.70 -423.74 -17.23
1497.70 -426.74 -16.86
1497.69 -429.74 -16.86
1497.69 -432.74 -16.49
1497.69 -435.74 -16.49
1497.69 -438.74 -16.49
1497.69 -441.74 -16.49
1497.69 -444.74 -16.49
1497.69 -447.74 -16.49
1497.69 -450.74 -16.13
1497.69 -453.74 -15.76
1497.68 -456.74 -15.39
1497.68 -459.74 -14.66
1497.68 -462.74 -14.29
1497.68 -465.74 -13.20
1497.68 -468.74 -12.46
1497.68 -471.74 -11.36
1497.68 -474.74 -10.26
1497.68 -477.74 -9.90
1497.67 -480.74 -9.16
1497.67 -483.74 -8.80
1497.67 -486.74 -9.16
1497.67 -489.74 -9.53
1497.67 -492.74 -10.26
1497.67 -495.74 -11.00
1497.67 -498.74 -11.36
1497.67 -501.74 -12.10
1497.66 -504.74 -12.46
1497.66 -507.74 -12.83
1497.66 -510.74 -12.83
1497.66 -513.74 -13.20
1497.66 -516.74 -13.20
1497.66 -519.74 -13.20
1497.66 -522.74 -13.20
1497.66 -525.74 -13.20
1497.66 -528.74 -13.20
1497.65 -531.74 -12.83
1497.65 -534.74 -12.83
1497.65 -537.74 -12.83
1497.65 -540.74 -12.46
1497.65 -543.74 -12.46
1497.65 -546.74 -12.10
1497.65 -549.74 -11.73
1497.65 -552.74 -11.73
1497.64 -555.74 -11.36
1497.64 -558.74 -11.36
1497.64 -561.74 -11.00
1497.64 -564.74 -11.00
1497.64 -567.74 -10.63
1497.64 -570.74 -10.26
1497.64 -573.74 -10.26
1497.64 -576.74 -9.90
1497.63 -579.74 -9.53
1497.63 -582.74 -9.53
1497.63 -585.74 -9.16
1497.63 -588.74 -8.80
1497.63 -591.74 -8.80
1497.63 -594.74 -8.43
1497.63 -597.74 -8.06
1497.63 -600.74 -8.06
1497.63 -603.74 -7.70
1497.62 -606.74 -7.33
1497.62 -609.74 -7.33
1497.62 -612.74 -6.96
1497.62 -615.74 -6.60
1497.62 -618.74 -6.23
1497.62 -621.74 -6.23
1497.62 -624.74 -5.86
1497.62 -627.74 -5.50
1497.61 -630.74 -5.50
1497.61 -633.74 -5.13
1497.61 -636.74 -5.13
1497.61 -639.74 -5.13
1497.61 -642.74 -5.13
1497.61 -645.74 -5.50
1497.61 -648.74 -5.86
1497.61 -651.74 -5.86
1497.60 -654.74 -6.23
1497.60 -657.74 -6.23
1497.60 -660.74 -6.23
1497.60 -663.74 -6.23
1497.60 -666.74 -6.60
1497.60 -669.74 -6.60
1497.60 -672.74 -6.60
1497.60 -675.74 -6.60
1497.60 -678.74 -6.60
1497.59 -681.74 -6.96
1497.59 -684.74 -6.96
1497.59 -687.74 -6.96
1497.59 -690.74 -6.96
1497.59 -693.74 -7.33
1497.59 -696.74 -7.33
1497.59 -699.74 -7.70
1497.59 -702.74 -8.06
1497.58 -705.74 -8.06
1497.58 -708.74 -8.43
1497.58 -711.74 -8.43
1497.58 -714.74 -8.43
1497.58 -717.74 -8.80
1497.58 -720.74 -8.80
1497.58 -723.74 -9.16
1497.58 -726.74 -9.16
1497.57 -729.74 -9.16
1497.57 -732.74 -9.53
1497.57 -735.74 -9.53
1497.57 -738.74 -9.53
1497.57 -741.74 -9.90
1497.57 -744.74 -9.90
1497.57 -747.74 -9.90
1497.57 -750.74 -10.26
1497.57 -753.74 -10.26
1497.56 -756.74 -10.26
1497.56 -759.74 -10.26
1497.56 -762.74 -10.63
1497.56 -765.74 -10.63
1497.56 -768.74 -10.63
1497.56 -771.74 -11.00
1497.56 -774.74 -11.00
1497.56 -777.74 -11.00
1497.55 -780.74 -11.36
1497.55 -783.74 -11.36
1497.55 -786.74 -11.73
1497.55 -789.74 -11.73
1497.55 -792.74 -11.73
1497.55 -795.74 -11.73
1497.55 -798.74 -11.73
1497.55 -801.74 -11.73
1497.54 -804.74 -12.10
1497.54 -807.74 -12.10
1497.54 -810.74 -12.10
1497.54 -813.74 -12.46
1497.54 -816.74 -12.46
1497.54 -819.74 -12.46
1497.54 -822.74 -12.46
1497.54 -825.74 -12.46
1497.54 -828.74 -12.46
1497.53 -831.74 -12.46
1497.53 -834.74 -12.83
1497.53 -837.74 -12.83
1497.53 -840.74 -12.83
1497.53 -843.74 -13.20
1497.53 -846.74 -13.20
1497.53 -849.74 -13.20
1497.53 -852.74 -13.20
1497.52 -855.74 -13.20
1497.52 -858.74 -13.20
1497.52 -861.74 -13.56
1497.52 -864.74 -13.56
1497.52 -867.74 -13.56
1497.52 -870.74 -13.56
1497.52 -873.74 -13.56
1497.52 -876.74 -13.56
1497.51 -879.74 -13.56
1497.51 -882.74 -13.56
1497.51 -885.74 -13.56
1497.51 -888.74 -13.93
1497.51 -891.74 -13.93
1497.51 -894.74 -13.93
1497.51 -897.74 -13.93
1497.51 -900.74 -13.93
1497.51 -903.74 -13.93
1497.50 -906.74 -13.93
1497.50 -909.74 -14.29
1497.50 -912.74 -14.29
1497.50 -915.74 -14.29
1497.50 -918.74 -14.29
1497.50 -921.74 -14.29
1497.50 -924.74 -14.29
1497.50 -927.74 -14.29
1497.49 -930.74 -14.29
1497.49 -933.74 -14.29
1497.49 -936.74 -14.66
1497.49 -939.74 -14.66
1500.86 -18.74 -33.35
1500.86 -21.74 -33.35
1500.86 -24.74 -33.35
1500.86 -27.74 -33.72
1500.85 -30.74 -33.72
1500.85 -33.74 -33.72
1500.85 -36.74 -34.09
1500.85 -39.74 -34.09
1500.85 -42.74 -34.09
1500.85 -45.74 -34.45
1500.85 -48.74 -34.45
1500.85 -51.74 -34.45
1500.85 -54.74 -34.82
1500.84 -57.74 -34.82
1500.84 -60.74 -34.82
1500.84 -63.74 -35.19
1500.84 -66.74 -35.19
1500.84 -69.74 -35.19
1500.84 -72.74 -35.55
1500.84 -75.74 -35.55
1500.84 -78.74 -35.55
1500.83 -81.74 -35.92
1500.83 -84.74 -36.29
1500.83 -87.74 -36.29
1500.83 -90.74 -36.65
1500.83 -93.74 -37.02
1500.83 -96.74 -37.02
1500.83 -99.74 -37.39
1500.83 -102.74 -37.75
1500.82 -105.74 -38.12
1500.82 -108.74 -38.85
1500.82 -111.74 -39.22
1500.82 -114.74 -39.59
1500.82 -117.74 -40.32
1500.82 -120.74 -40.68
1500.82 -123.74 -41.05
1500.82 -126.74 -41.42
1500.82 -129.74 -41.42
1500.81 -132.74 -41.42
1500.81 -135.74 -41.05
1500.81 -138.74 -40.68
1500.81 -141.74 -39.95
1500.81 -144.74 -39.59
1500.81 -147.74 -39.22
1500.81 -150.74 -38.49
1500.81 -153.74 -38.49
1500.80 -156.74 -38.12
1500.80 -159.74 -38.12
1500.80 -162.74 -38.12
1500.80 -165.74 -38.12
1500.80 -168.74 -38.12
1500.80 -171.74 -38.12
1500.80 -174.74 -38.12
1500.80 -177.74 -38.12
1500.79 -180.74 -38.12
1500.79 -183.74 -37.75
1500.79 -186.74 -37.75
1500.79 -189.74 -37.02
1500.79 -192.74 -37.02
1500.79 -195.74 -36.65
1500.79 -198.74 -35.92
1500.79 -201.74 -35.55
1500.79 -204.74 -35.19
1500.78 -207.74 -34.82
1500.78 -210.74 -34.45
1500.78 -213.74 -34.45
1500.78 -216.74 -34.09
1500.78 -219.74 -34.09
1500.78 -222.74 -34.09
1500.78 -225.74 -34.09
1500.78 -228.74 -33.72
1500.77 -231.74 -33.72
1500.77 -234.74 -33.35
1500.77 -237.74 -32.99
1500.77 -240.74 -32.62
1500.77 -243.74 -32.25
1500.77 -246.74 -31.52
1500.77 -249.74 -31.15
1500.77 -252.74 -30.42
1500.76 -255.74 -30.06
1500.76 -258.74 -29.32
1500.76 -261.74 -28.96
1500.76 -264.74 -28.59
1500.76 -267.74 -28.59
1500.76 -270.74 -28.22
1500.76 -273.74 -28.22
1500.76 -276.74 -27.86
1500.76 -279.74 -27.86
1500.75 -282.74 -27.49
1500.75 -285.74 -27.49
1500.75 -288.74 -27.12
1500.75 -291.74 -26.76
1500.75 -294.74 -26.02
1500.75 -297.74 -25.29
1500.75 -300.74 -24.92
1500.75 -303.74 -24.19
1500.74 -306.74 -23.82
1500.74 -309.74 -23.46
1500.74 -312.74 -23.09
1500.74 -315.74 -22.72
1500.74 -318.74 -22.36
1500.74 -321.74 -22.36
1500.74 -324.74 -21.99
1500.74 -327.74 -21.63
1500.73 -330.74 -21.63
1500.73 -333.74 -21.26
1500.73 -336.74 -20.53
1500.73 -339.74 -20.16
1500.73 -342.74 -19.79
1500.73 -345.74 -19.43
1500.73 -348.74 -19.06
1500.73 -351.74 -18.69
1500.73 -354.74 -18.69
1500.72 -357.74 -18.33
1500.72 -360.74 -18.69
1500.72 -363.74 -18.69
1500.72 -366.74 -18.69
1500.72 -369.74 -18.69
1500.72 -372.74 -18.69
1500.72 -375.74 -18.69
1500.72 -378.74 -18.69
1500.71 -381.74 -18.69
1500.71 -384.74 -19.06
1500.71 -387.74 -19.06
1500.71 -390.74 -19.06
1500.71 -393.74 -19.06
1500.71 -396.74 -19.06
1500.71 -399.74 -19.06
1500.71 -402.74 -19.06
1500.70 -405.74 -18.69
1500.70 -408.74 -18.69
1500.70 -411.74 -18.33
1500.70 -414.74 -17.96
1500.70 -417.74 -17.59
1500.70 -420.74 -17.59
1500.70 -423.74 -17.23
1500.70 -426.74 -17.23
1500.69 -429.74 -16.86
1500.69 -432.74 -16.86
1500.69 -435.74 -16.86
1500.69 -438.74 -16.86
1500.69 -441.74 -16.86
1500.69 -444.74 -16.49
1500.69 -447.74 -16.49
1500.69 -450.74 -16.13
1500.69 -453.74 -15.76
1500.68 -456.74 -15.39
1500.68 -459.74 -14.66
1500.68 -462.74 -14.29
1500.68 -465.74 -13.56
1500.68 -468.74 -12.83
1500.68 -471.74 -12.10
1500.68 -474.74 -11.36
1500.68 -477.74 -10.63
1500.67 -480.74 -10.26
1500.67 -483.74 -9.90
1500.67 -486.74 -10.26
1500.67 -489.74 -10.63
1500.67 -492.74 -11.00
1500.67 -495.74 -11.36
1500.67 -498.74 -11.73
1500.67 -501.74 -12.46
1500.66 -504.74 -12.46
1500.66 -507.74 -12.83
1500.66 -510.74 -12.83
1500.66 -513.74 -13.20
1500.66 -516.74 -13.20
1500.66 -519.74 -13.20
1500.66 -522.74 -13.20
1500.66 -525.74 -13.20
1500.66 -528.74 -12.83
1500.65 -531.74 -12.83
1500.65 -534.74 -12.83
1500.65 -537.74 -12.46
1500.65 -540.74 -12.46
1500.65 -543.74 -12.10
1500.65 -546.74 -12.10
1500.65 -549.74 -11.73
1500.65 -552.74 -11.36
1500.64 -555.74 -11.36
1500.64 -558.74 -11.00
1500.64 -561.74 -11.00
1500.64 -564.74 -10.63
1500.64 -567.74 -10.26
1500.64 -570.74 -10.26
1500.64 -573.74 -9.90
1500.64 -576.74 -9.53
1500.63 -579.74 -9.53
1500.63 -582.74 -9.16
1500.63 -585.74 -8.80
1500.63 -588.74 -8.80
1500.63 -591.74 -8.43
1500.63 -594.74 -8.06
1500.63 -597.74 -8.06
1500.63 -600.74 -7.70
1500.63 -603.74 -7.33
1500.62 -606.74 -7.33
1500.62 -609.74 -6.96
1500.62 -612.74 -6.96
1500.62 -615.74 -6.60
1500.62 -618.74 -6.23
1500.62 -621.74 -5.86
1500.62 -624.74 -5.50
1500.62 -627.74 -5.13
1500.61 -630.74 -5.13
1500.61 -633.74 -4.76
1500.61 -636.74 -4.76
1500.61 -639.74 -4.76
1500.61 -642.74 -5.13
1500.61 -645.74 -5.50
1500.61 -648.74 -5.86
1500.61 -651.74 -5.86
1500.60 -654.74 -6.23
1500.60 -657.74 -6.23
1500.60 -660.74 -6.23
1500.60 -663.74 -6.60
1500.60 -666.74 -6.96
1500.60 -669.74 -6.96
1500.60 -672.74 -6.96
1500.60 -675.74 -6.96
1500.60 -678.74 -6.96
1500.59 -681.74 -6.96
1500.59 -684.74 -6.96
1500.59 -687.74 -7.33
1500.59 -690.74 -7.33
1500.59 -693.74 -7.33
1500.59 -696.74 -7.70
1500.59 -699.74 -7.70
1500.59 -702.74 -8.06
1500.58 -705.74 -8.43
1500.58 -708.74 -8.43
1500.58 -711.74 -8.43
1500.58 -714.74 -8.80
1500.58 -717.74 -8.80
1500.58 -720.74 -9.16
1500.58 -723.74 -9.16
1500.58 -726.74 -9.16
1500.57 -729.74 -9.16
1500.57 -732.74 -9.53
1500.57 -735.74 -9.53
1500.57 -738.74 -9.53
1500.57 -741.74 -9.90
1500.57 -744.74 -9.90
1500.57 -747.74 -9.90
1500.57 -750.74 -10.26
1500.57 -753.74 -10.26
1500.56 -756.74 -10.26
1500.56 -759.74 -10.63
1500.56 -762.74 -10.63
1500.56 -765.74 -10.63
1500.56 -768.74 -11.00
1500.56 -771.74 -11.00
1500.56 -774.74 -11.00
1500.56 -777.74 -11.36
1500.55 -780.74 -11.36
1500.55 -783.74 -11.36
1500.55 -786.74 -11.73
1500.55 -789.74 -11.73
1500.55 -792.74 -11.73
1500.55 -795.74 -11.73
1500.55 -798.74 -11.73
1500.55 -801.74 -11.73
1500.54 -804.74 -12.10
1500.54 -807.74 -12.10
1500.54 -810.74 -12.10
1500.54 -813.74 -12.46
1500.54 -816.74 -12.46
1500.54 -819.74 -12.46
1500.54 -822.74 -12.46
1500.54 -825.74 -12.46
1500.54 -828.74 -12.46
1500.53 -831.74 -12.83
1500.53 -834.74 -12.83
1500.53 -837.74 -12.83
1500.53 -840.74 -13.20
1500.53 -843.74 -13.20
1500.53 -846.74 -13.20
1500.53 -849.74 -13.20
1500.53 -852.74 -13.20
1500.52 -855.74 -13.20
1500.52 -858.74 -13.56
1500.52 -861.74 -13.56
1500.52 -864.74 -13.56
1500.52 -867.74 -13.56
1500.52 -870.74 -13.56
1500.52 -873.74 -13.56
1500.52 -876.74 -13.56
1500.51 -879.74 -13.56
1500.51 -882.74 -13.56
1500.51 -885.74 -13.56
1500.51 -888.74 -13.93
1500.51 -891.74 -13.93
1500.51 -894.74 -13.93
1500.51 -897.74 -13.93
1500.51 -900.74 -13.93
1500.51 -903.74 -13.93
1500.50 -906.74 -14.29
1500.50 -909.74 -14.29
1500.50 -912.74 -14.29
1500.50 -915.74 -14.29
1500.50 -918.74 -14.29
1500.50 -921.74 -14.29
1500.50 -924.74 -14.29
1500.50 -927.74 -14.29
1500.49 -930.74 -14.29
1500.49 -933.74 -14.66
1500.49 -936.74 -14.66
1500.49 -939.74 -14.66
1503.86 -18.74 -33.35
1503.86 -21.74 -33.35
1503.86 -24.74 -33.35
1503.86 -27.74 -33.72
1503.85 -30.74 -33.72
1503.85 -33.74 -33.72
1503.85 -36.74 -34.09
1503.85 -39.74 -34.09
1503.85 -42.74 -34.09
1503.85 -45.74 -34.45
1503.85 -48.74 -34.45
1503.85 -51.74 -34.45
1503.85 -54.74 -34.82
1503.84 -57.74 -34.82
1503.84 -60.74 -34.82
1503.84 -63.74 -34.82
1503.84 -66.74 -35.19
1503.84 -69.74 -35.19
1503.84 -72.74 -35.19
1503.84 -75.74 -35.55
1503.84 -78.74 -35.55
1503.83 -81.74 -35.92
1503.83 -84.74 -35.92
1503.83 -87.74 -36.29
1503.83 -90.74 -36.65
1503.83 -93.74 -37.02
1503.83 -96.74 -37.02
1503.83 -99.74 -37.39
1503.83 -102.74 -37.75
1503.82 -105.74 -38.12
1503.82 -108.74 -38.85
1503.82 -111.74 -39.22
1503.82 -114.74 -39.59
1503.82 -117.74 -39.95
1503.82 -120.74 -40.68
1503.82 -123.74 -41.05
1503.82 -126.74 -41.42
1503.82 -129.74 -41.42
1503.81 -132.74 -41.42
1503.81 -135.74 -41.05
1503.81 -138.74 -40.68
1503.81 -141.74 -39.95
1503.81 -144.74 -39.59
1503.81 -147.74 -38.85
1503.81 -150.74 -38.49
1503.81 -153.74 -38.12
1503.80 -156.74 -37.75
1503.80 -159.74 -37.75
1503.80 -162.74 -37.75
1503.80 -165.74 -37.75
1503.80 -168.74 -37.75
1503.80 -171.74 -37.75
1503.80 -174.74 -37.75
1503.80 -177.74 -37.75
1503.79 -180.74 -37.39
1503.79 -183.74 -37.39
1503.79 -186.74 -37.02
1503.79 -189.74 -36.65
1503.79 -192.74 -36.29
1503.79 -195.74 -35.92
1503.79 -198.74 -35.55
1503.79 -201.74 -35.19
1503.79 -204.74 -34.82
1503.78 -207.74 -34.82
1503.78 -210.74 -34.45
1503.78 -213.74 -34.09
1503.78 -216.74 -34.09
1503.78 -219.74 -33.72
1503.78 -222.74 -33.72
1503.78 -225.74 -33.72
1503.78 -228.74 -33.35
1503.77 -231.74 -32.99
1503.77 -234.74 -32.99
1503.77 -237.74 -32.62
1503.77 -240.74 -32.25
1503.77 -243.74 -31.89
1503.77 -246.74 -31.15
1503.77 -249.74 -30.79
1503.77 -252.74 -30.06
1503.76 -255.74 -29.32
1503.76 -258.74 -28.96
1503.76 -261.74 -28.59
1503.76 -264.74 -28.22
1503.76 -267.74 -27.86
1503.76 -270.74 -27.86
1503.76 -273.74 -27.49
1503.76 -276.74 -27.49
1503.76 -279.74 -27.49
1503.75 -282.74 -27.12
1503.75 -285.74 -27.12
1503.75 -288.74 -26.76
1503.75 -291.74 -26.39
1503.75 -294.74 -25.66
1503.75 -297.74 -25.29
1503.75 -300.74 -24.56
1503.75 -303.74 -24.19
1503.74 -306.74 -23.82
1503.74 -309.74 -23.09
1503.74 -312.74 -22.72
1503.74 -315.74 -22.36
1503.74 -318.74 -22.36
1503.74 -321.74 -21.99
1503.74 -324.74 -21.63
1503.74 -327.74 -21.26
1503.73 -330.74 -20.89
1503.73 -333.74 -20.53
1503.73 -336.74 -19.79
1503.73 -339.74 -19.43
1503.73 -342.74 -18.69
1503.73 -345.74 -18.33
1503.73 -348.74 -17.96
1503.73 -351.74 -17.96
1503.73 -354.74 -17.96
1503.72 -357.74 -17.59
1503.72 -360.74 -17.59
1503.72 -363.74 -17.59
1503.72 -366.74 -17.59
1503.72 -369.74 -17.59
1503.72 -372.74 -17.59
1503.72 -375.74 -17.96
1503.72 -378.74 -17.96
1503.71 -381.74 -17.96
1503.71 -384.74 -18.33
1503.71 -387.74 -18.33
1503.71 -390.74 -18.69
1503.71 -393.74 -18.69
1503.71 -396.74 -18.69
1503.71 -399.74 -18.69
1503.71 -402.74 -18.69
1503.70 -405.74 -18.33
1503.70 -408.74 -18.33
1503.70 -411.74 -17.96
1503.70 -414.74 -17.96
1503.70 -417.74 -17.59
1503.70 -420.74 -17.59
1503.70 -423.74 -17.59
1503.70 -426.74 -17.23
1503.69 -429.74 -17.23
1503.69 -432.74 -17.23
1503.69 -435.74 -16.86
1503.69 -438.74 -16.86
1503.69 -441.74 -16.86
1503.69 -444.74 -16.49
1503.69 -447.74 -16.49
1503.69 -450.74 -16.13
1503.69 -453.74 -15.76
1503.68 -456.74 -15.39
1503.68 -459.74 -15.03
1503.68 -462.74 -14.29
1503.68 -465.74 -13.93
1503.68 -468.74 -13.20
1503.68 -471.74 -12.46
1503.68 -474.74 -11.73
1503.68 -477.74 -11.36
1503.67 -480.74 -11.00
1503.67 -483.74 -10.63
1503.67 -486.74 -11.00
1503.67 -489.74 -11.00
1503.67 -492.74 -11.36
1503.67 -495.74 -11.73
1503.67 -498.74 -12.10
1503.67 -501.74 -12.46
1503.66 -504.74 -12.46
1503.66 -507.74 -12.83
1503.66 -510.74 -12.83
1503.66 -513.74 -12.83
1503.66 -516.74 -13.20
1503.66 -519.74 -13.20
1503.66 -522.74 -13.20
1503.66 -525.74 -13.20
1503.66 -528.74 -12.83
1503.65 -531.74 -12.83
1503.65 -534.74 -12.46
1503.65 -537.74 -12.46
1503.65 -540.74 -12.46
1503.65 -543.74 -12.10
1503.65 -546.74 -11.73
1503.65 -549.74 -11.73
1503.65 -552.74 -11.36
1503.64 -555.74 -11.00
1503.64 -558.74 -11.00
1503.64 -561.74 -10.63
1503.64 -564.74 -10.26
1503.64 -567.74 -10.26
1503.64 -570.74 -9.90
1503.64 -573.74 -9.53
1503.64 -576.74 -9.53
1503.63 -579.74 -9.16
1503.63 -582.74 -8.80
1503.63 -585.74 -8.80
1503.63 -588.74 -8.43
1503.63 -591.74 -8.06
1503.63 -594.74 -8.06
1503.63 -597.74 -7.70
1503.63 -600.74 -7.70
1503.63 -603.74 -7.33
1503.62 -606.74 -6.96
1503.62 -609.74 -6.96
1503.62 -612.74 -6.60
1503.62 -615.74 -6.23
1503.62 -618.74 -5.86
1503.62 -621.74 -5.50
1503.62 -624.74 -5.13
1503.62 -627.74 -5.13
1503.61 -630.74 -4.76
1503.61 -633.74 -4.76
1503.61 -636.74 -4.76
1503.61 -639.74 -4.76
1503.61 -642.74 -4.76
1503.61 -645.74 -5.50
1503.61 -648.74 -5.86
1503.61 -651.74 -5.86
1503.60 -654.74 -6.23
1503.60 -657.74 -6.23
1503.60 -660.74 -6.23
1503.60 -663.74 -6.60
1503.60 -666.74 -6.96
1503.60 -669.74 -6.96
1503.60 -672.74 -6.96
1503.60 -675.74 -6.96
1503.60 -678.74 -6.96
1503.59 -681.74 -6.96
1503.59 -684.74 -7.33
1503.59 -687.74 -7.33
1503.59 -690.74 -7.33
1503.59 -693.74 -7.70
1503.59 -696.74 -7.70
1503.59 -699.74 -8.06
1503.59 -702.74 -8.43
1503.58 -705.74 -8.43
1503.58 -708.74 -8.43
1503.58 -711.74 -8.80
1503.58 -714.74 -8.80
1503.58 -717.74 -8.80
1503.58 -720.74 -9.16
1503.58 -723.74 -9.16
1503.58 -726.74 -9.16
1503.57 -729.74 -9.53
1503.57 -732.74 -9.53
1503.57 -735.74 -9.53
1503.57 -738.74 -9.90
1503.57 -741.74 -9.90
1503.57 -744.74 -9.90
1503.57 -747.74 -10.26
1503.57 -750.74 -10.26
1503.57 -753.74 -10.26
1503.56 -756.74 -10.63
1503.56 -759.74 -10.63
1503.56 -762.74 -10.63
1503.56 -765.74 -11.00
1503.56 -768.74 -11.00
1503.56 -771.74 -11.00
1503.56 -774.74 -11.00
1503.56 -777.74 -11.36
1503.55 -780.74 -11.36
1503.55 -783.74 -11.73
1503.55 -786.74 -11.73
1503.55 -789.74 -11.73
1503.55 -792.74 -11.73
1503.55 -795.74 -11.73
1503.55 -798.74 -11.73
1503.55 -801.74 -11.73
1503.54 -804.74 -12.10
1503.54 -807.74 -12.10
1503.54 -810.74 -12.46
1503.54 -813.74 -12.46
1503.54 -816.74 -12.46
1503.54 -819.74 -12.46
1503.54 -822.74 -12.46
1503.54 -825.74 -12.46
1503.54 -828.74 -12.46
1503.53 -831.74 -12.83
1503.53 -834.74 -12.83
1503.53 -837.74 -12.83
1503.53 -840.74 -13.20
1503.53 -843.74 -13.20
1503.53 -846.74 -13.20
1503.53 -849.74 -13.20
1503.53 -852.74 -13.20
1503.52 -855.74 -13.20
1503.52 -858.74 -13.56
1503.52 -861.74 -13.56
1503.52 -864.74 -13.56
1503.52 -867.74 -13.56
1503.52 -870.74 -13.56
1503.52 -873.74 -13.56
1503.52 -876.74 -13.56
1503.51 -879.74 -13.56
1503.51 -882.74 -13.56
1503.51 -885.74 -13.56
1503.51 -888.74 -13.93
1503.51 -891.74 -13.93
1503.51 -894.74 -13.93
1503.51 -897.74 -13.93
1503.51 -900.74 -13.93
1503.51 -903.74 -13.93
1503.50 -906.74 -14.29
1503.50 -909.74 -14.29
1503.50 -912.74 -14.29
1503.50 -915.74 -14.29
1503.50 -918.74 -14.29
1503.50 -921.74 -14.29
1503.50 -924.74 -14.29
1503.50 -927.74 -14.29
1503.49 -930.74 -14.29
1503.49 -933.74 -14.66
1503.49 -936.74 -14.66
1503.49 -939.74 -14.66
1506.86 -18.74 -33.35
1506.86 -21.74 -33.35
1506.86 -24.74 -33.35
1506.86 -27.74 -33.35
1506.85 -30.74 -33.72
1506.85 -33.74 -33.72
1506.85 -36.74 -33.72
1506.85 -39.74 -34.09
1506.85 -42.74 -34.09
1506.85 -45.74 -34.09
1506.85 -48.74 -34.45
1506.85 -51.74 -34.45
1506.85 -54.74 -34.45
1506.84 -57.74 -34.82
1506.84 -60.74 -34.82
1506.84 -63.74 -34.82
1506.84 -66.74 -35.19
1506.84 -69.74 -35.19
1506.84 -72.74 -35.19
1506.84 -75.74 -35.55
1506.84 -78.74 -35.55
1506.83 -81.74 -35.92
1506.83 -84.74 -35.92
1506.83 -87.74 -36.29
1506.83 -90.74 -36.65
1506.83 -93.74 -36.65
1506.83 -96.74 -37.02
1506.83 -99.74 -37.39
1506.83 -102.74 -37.75
1506.82 -105.74 -38.12
1506.82 -108.74 -38.49
1506.82 -111.74 -38.85
1506.82 -114.74 -39.59
1506.82 -117.74 -39.95
1506.82 -120.74 -40.68
1506.82 -123.74 -40.68
1506.82 -126.74 -41.05
1506.82 -129.74 -41.05
1506.81 -132.74 -41.05
1506.81 -135.74 -40.68
1506.81 -138.74 -40.32
1506.81 -141.74 -39.59
1506.81 -144.74 -39.22
1506.81 -147.74 -38.85
1506.81 -150.74 -38.12
1506.81 -153.74 -38.12
1506.80 -156.74 -37.39
1506.80 -159.74 -37.39
1506.80 -162.74 -37.39
1506.80 -165.74 -37.02
1506.80 -168.74 -37.02
1506.80 -171.74 -37.02
1506.80 -174.74 -37.02
1506.80 -177.74 -37.02
1506.79 -180.74 -37.02
1506.79 -183.74 -36.65
1506.79 -186.74 -36.65
1506.79 -189.74 -36.29
1506.79 -192.74 -35.92
1506.79 -195.74 -35.92
1506.79 -198.74 -35.19
1506.79 -201.74 -35.19
1506.79 -204.74 -34.45
1506.78 -207.74 -34.45
1506.78 -210.74 -34.09
1506.78 -213.74 -33.72
1506.78 -216.74 -33.72
1506.78 -219.74 -33.72
1506.78 -222.74 -33.35
1506.78 -225.74 -33.35
1506.78 -228.74 -32.99
1506.77 -231.74 -32.62
1506.77 -234.74 -32.25
1506.77 -237.74 -32.25
1506.77 -240.74 -31.52
1506.77 -243.74 -31.52
1506.77 -246.74 -30.79
1506.77 -249.74 -30.06
1506.77 -252.74 -29.32
1506.76 -255.74 -28.96
1506.76 -258.74 -28.59
1506.76 -261.74 -28.22
1506.76 -264.74 -27.86
1506.76 -267.74 -27.49
1506.76 -270.74 -27.49
1506.76 -273.74 -27.12
1506.76 -276.74 -27.12
1506.76 -279.74 -27.12
1506.75 -282.74 -27.12
1506.75 -285.74 -26.76
1506.75 -288.74 -26.39
1506.75 -291.74 -26.02
1506.75 -294.74 -25.29
1506.75 -297.74 -24.92
1506.75 -300.74 -24.19
1506.75 -303.74 -23.82
1506.74 -306.74 -23.46
1506.74 -309.74 -23.09
1506.74 -312.74 -22.72
1506.74 -315.74 -21.99
1506.74 -318.74 -21.99
1506.74 -321.74 -21.26
1506.74 -324.74 -21.26
1506.74 -327.74 -20.53
1506.73 -330.74 -20.16
1506.73 -333.74 -19.43
1506.73 -336.74 -18.69
1506.73 -339.74 -18.33
1506.73 -342.74 -17.96
1506.73 -345.74 -17.59
1506.73 -348.74 -17.23
1506.73 -351.74 -16.86
1506.73 -354.74 -16.86
1506.72 -357.74 -16.86
1506.72 -360.74 -16.86
1506.72 -363.74 -16.86
1506.72 -366.74 -16.86
1506.72 -369.74 -16.86
1506.72 -372.74 -16.86
1506.72 -375.74 -16.86
1506.72 -378.74 -17.23
1506.71 -381.74 -17.23
1506.71 -384.74 -17.59
1506.71 -387.74 -17.59
1506.71 -390.74 -17.96
1506.71 -393.74 -17.96
1506.71 -396.74 -17.96
1506.71 -399.74 -18.33
1506.71 -402.74 -18.33
1506.70 -405.74 -17.96
1506.70 -408.74 -17.96
1506.70 -411.74 -17.96
1506.70 -414.74 -17.59
1506.70 -417.74 -17.59
1506.70 -420.74 -17.59
1506.70 -423.74 -17.23
1506.70 -426.74 -17.23
1506.69 -429.74 -17.23
1506.69 -432.74 -17.23
1506.69 -435.74 -16.86
1506.69 -438.74 -16.86
1506.69 -441.74 -16.86
1506.69 -444.74 -16.49
1506.69 -447.74 -16.49
1506.69 -450.74 -16.13
1506.69 -453.74 -15.76
1506.68 -456.74 -15.39
1506.68 -459.74 -15.03
1506.68 -462.74 -14.66
1506.68 -465.74 -13.93
1506.68 -468.74 -13.56
1506.68 -471.74 -12.83
1506.68 -474.74 -12.10
1506.68 -477.74 -12.10
1506.67 -480.74 -11.73
1506.67 -483.74 -11.36
1506.67 -486.74 -11.36
1506.67 -489.74 -11.73
1506.67 -492.74 -11.73
1506.67 -495.74 -12.10
1506.67 -498.74 -12.10
1506.67 -501.74 -12.46
1506.66 -504.74 -12.83
1506.66 -507.74 -12.83
1506.66 -510.74 -12.83
1506.66 -513.74 -12.83
1506.66 -516.74 -12.83
1506.66 -519.74 -13.20
1506.66 -522.74 -12.83
1506.66 -525.74 -12.83
1506.66 -528.74 -12.83
1506.65 -531.74 -12.46
1506.65 -534.74 -12.46
1506.65 -537.74 -12.46
1506.65 -540.74 -12.10
1506.65 -543.74 -12.10
1506.65 -546.74 -11.73
1506.65 -549.74 -11.36
1506.65 -552.74 -11.36
1506.64 -555.74 -11.00
1506.64 -558.74 -10.63
1506.64 -561.74 -10.63
1506.64 -564.74 -10.26
1506.64 -567.74 -9.90
1506.64 -570.74 -9.53
1506.64 -573.74 -9.53
1506.64 -576.74 -9.16
1506.63 -579.74 -9.16
1506.63 -582.74 -8.80
1506.63 -585.74 -8.43
1506.63 -588.74 -8.43
1506.63 -591.74 -8.06
1506.63 -594.74 -8.06
1506.63 -597.74 -7.70
1506.63 -600.74 -7.33
1506.63 -603.74 -6.96
1506.62 -606.74 -6.96
1506.62 -609.74 -6.60
1506.62 -612.74 -6.60
1506.62 -615.74 -6.23
1506.62 -618.74 -5.86
1506.62 -621.74 -5.50
1506.62 -624.74 -5.13
1506.62 -627.74 -4.76
1506.61 -630.74 -4.76
1506.61 -633.74 -4.40
1506.61 -636.74 -4.40
1506.61 -639.74 -4.76
1506.61 -642.74 -4.76
1506.61 -645.74 -5.13
1506.61 -648.74 -5.50
1506.61 -651.74 -5.86
1506.60 -654.74 -6.23
1506.60 -657.74 -6.23
1506.60 -660.74 -6.60
1506.60 -663.74 -6.60
1506.60 -666.74 -6.96
1506.60 -669.74 -6.96
1506.60 -672.74 -6.96
1506.60 -675.74 -6.96
1506.60 -678.74 -7.33
1506.59 -681.74 -7.33
1506.59 -684.74 -7.33
1506.59 -687.74 -7.70
1506.59 -690.74 -7.70
1506.59 -693.74 -7.70
1506.59 -696.74 -8.06
1506.59 -699.74 -8.06
1506.59 -702.74 -8.43
1506.58 -705.74 -8.43
1506.58 -708.74 -8.80
1506.58 -711.74 -8.80
1506.58 -714.74 -8.80
1506.58 -717.74 -9.16
1506.58 -720.74 -9.16
1506.58 -723.74 -9.16
1506.58 -726.74 -9.16
1506.57 -729.74 -9.53
1506.57 -732.74 -9.53
1506.57 -735.74 -9.90
1506.57 -738.74 -9.90
1506.57 -741.74 -9.90
1506.57 -744.74 -9.90
1506.57 -747.74 -10.26
1506.57 -750.74 -10.26
1506.57 -753.74 -10.26
1506.56 -756.74 -10.63
1506.56 -759.74 -10.63
1506.56 -762.74 -10.63
1506.56 -765.74 -11.00
1506.56 -768.74 -11.00
1506.56 -771.74 -11.00
1506.56 -774.74 -11.36
1506.56 -777.74 -11.36
1506.55 -780.74 -11.36
1506.55 -783.74 -11.73
1506.55 -786.74 -11.73
1506.55 -789.74 -11.73
1506.55 -792.74 -11.73
1506.55 -795.74 -11.73
1506.55 -798.74 -11.73
1506.55 -801.74 -11.73
1506.54 -804.74 -12.10
1506.54 -807.74 -12.10
1506.54 -810.74 -12.46
1506.54 -813.74 -12.46
1506.54 -816.74 -12.46
1506.54 -819.74 -12.46
1506.54 -822.74 -12.46
1506.54 -825.74 -12.46
1506.54 -828.74 -12.46
1506.53 -831.74 -12.83
1506.53 -834.74 -12.83
1506.53 -837.74 -12.83
1506.53 -840.74 -13.20
1506.53 -843.74 -13.20
1506.53 -846.74 -13.20
1506.53 -849.74 -13.20
1506.53 -852.74 -13.20
1506.52 -855.74 -13.20
1506.52 -858.74 -13.56
1506.52 -861.74 -13.56
1506.52 -864.74 -13.56
1506.52 -867.74 -13.56
1506.52 -870.74 -13.56
1506.52 -873.74 -13.56
1506.52 -876.74 -13.56
1506.51 -879.74 -13.56
1506.51 -882.74 -13.56
1506.51 -885.74 -13.93
1506.51 -888.74 -13.93
1506.51 -891.74 -13.93
1506.51 -894.74 -13.93
1506.51 -897.74 -13.93
1506.51 -900.74 -13.93
1506.51 -903.74 -14.29
1506.50 -906.74 -14.29
1506.50 -909.74 -14.29
1506.50 -912.74 -14.29
1506.50 -915.74 -14.29
1506.50 -918.74 -14.29
1506.50 -921.74 -14.29
1506.50 -924.74 -14.29
1506.50 -927.74 -14.29
1506.49 -930.74 -14.66
1506.49 -933.74 -14.66
1506.49 -936.74 -14.66
1506.49 -939.74 -14.66
1509.86 -18.75 -32.99
1509.86 -21.75 -32.99
1509.86 -24.75 -33.35
1509.86 -27.75 -33.35
1509.85 -30.75 -33.35
1509.85 -33.75 -33.72
1509.85 -36.75 -33.72
1509.85 -39.75 -34.09
1509.85 -42.75 -34.09
